-8.471600015284685981e-03 9.612096599526331886e-03 3.619027703151403343e-04
-3.809359353430563644e-02 1.568012889022173811e-02 4.092440085937487193e-04
-6.397244066245522109e-02 1.494952720240478802e-02 5.951373193022963318e-04
-9.360069409240050209e-02 1.432220842534784842e-02 9.092417618204264897e-04
-1.187593427942147950e-01 2.070591244056437311e-02 1.246381679308235929e-03
-1.281564113421449491e-01 2.367205189294111292e-02 1.716355037929747588e-03
-1.302603631182509825e-01 2.559232365883816127e-02 2.211290968777940551e-03
-1.548206800472421707e-01 3.273544633750368610e-02 2.507607703836012714e-03
-1.325728921075738920e-01 3.726435958708361473e-02 1.826836490340135333e-03
-1.323059162177572246e-01 3.463297819630196256e-02 1.578051221737675550e-03
-1.413424219881375676e-01 3.396621930509362286e-02 1.261041292752235286e-03
-1.409657262982177417e-01 3.462766216962585852e-02 6.460599352198463782e-04
-1.549520612760457161e-01 4.122559109725537629e-02 1.166416319840212022e-03
-1.486019023142934603e-01 4.556621482404637352e-02 1.442520706716817099e-03
-1.666110314082893673e-01 4.327667331491574787e-02 1.301044146740914891e-03
-1.679777048069621137e-01 4.857474481430618801e-02 1.546938821522328552e-03
-1.755002549877013596e-01 4.894097789682296668e-02 1.669888453597757677e-03
-1.732281456849062429e-01 4.697649513213021655e-02 1.647444352286084714e-03
-1.787831885659995068e-01 4.271241620492333135e-02 1.605269604876960032e-03
-1.782030167147949928e-01 5.131644445658337800e-02 1.781352016831306683e-03
-2.010891932335030496e-01 5.782118338264291557e-02 1.986881807382700864e-03
-1.902945623563993272e-01 5.589327038546362120e-02 1.990900678275509417e-03
-1.928109881415663307e-01 5.629678105697856483e-02 2.096192085498664332e-03
-2.056421730083900501e-01 5.476286861413134921e-02 2.036883745537071064e-03
-2.076760968892990278e-01 5.603803317667774286e-02 1.629086834817427935e-03
-2.409483506508874051e-01 5.227030844531103254e-02 8.147818484753882465e-04
-2.387583180483012490e-01 4.967360379954357391e-02 5.518529050037957817e-04
-2.532485192257168394e-01 4.880907822980875416e-02 5.042409967616933494e-04
-2.604323850262788009e-01 4.763661834499974962e-02 1.444772559591670619e-04
-2.693307712985567592e-01 5.387946279695091101e-02 1.966858927051823097e-04
-2.896391519546222537e-01 5.419437629484725322e-02 4.743467848417312659e-04
-3.078622713540805078e-01 5.289306227243403130e-02 2.335619052602645859e-05
-2.960492843781232786e-01 7.011480167912709227e-02 1.160317647084500685e-03
-3.179480895477210800e-01 6.665219327927954240e-02 1.784127299763910461e-03
-3.287823904437204292e-01 6.857539470013282457e-02 1.979593767831190534e-03
-3.530607477668562533e-01 6.765742784215428296e-02 1.826494351555102208e-03
-3.648323968888910751e-01 6.622732714305196167e-02 2.189640090788840497e-03
-3.771065435547329980e-01 6.570201673236590600e-02 2.362834023969576612e-03
-4.056467153526523428e-01 6.304133067265450807e-02 2.763524350031759929e-03
-4.517591546216320197e-01 6.753740662741157530e-02 2.556036048211455039e-03
-4.641903622289796916e-01 7.080322758487808676e-02 2.446497911433428030e-03
-5.025011290762981808e-01 7.761137818206265138e-02 2.213243535454267885e-03
-5.540259166031860083e-01 7.126997908560320227e-02 2.211535147920697976e-03
-6.002428579341315684e-01 6.881108330464598410e-02 1.978490978199136559e-03
-6.225639770971254094e-01 6.423954676838046496e-02 2.356323495666321800e-03
-6.711010164223856211e-01 5.593787114569997998e-02 3.119140576663614276e-03
-7.012296936393167535e-01 5.263326884469393674e-02 3.249211074666641039e-03
-7.675756877959766245e-01 5.460233832756230393e-02 3.677803950759342237e-03
-8.169428522278169291e-01 5.614508810490011909e-02 4.051567209389487362e-03
-8.889139118908995219e-01 5.048188198861537634e-02 3.981062763169843782e-03
-1.038344682034771704e+00 1.161015252054369007e-01 6.952324498442986715e-03
-1.103269490085610371e+00 1.094178116614936552e-01 7.579953992320457093e-03
-1.237049175692398029e+00 9.474533835573463458e-02 8.207611072216383988e-03
-1.270271968514837813e+00 9.421391024356164101e-02 8.562186715113107027e-03
-1.302760815116280835e+00 1.001045072935026758e-01 8.842795226154161886e-03
-1.343257844792035360e+00 1.073555814210539611e-01 9.371450950215264031e-03
-1.375647099399929241e+00 1.299054257551530700e-01 1.075722300943316757e-02
-1.440577496535631719e+00 1.739155935374592787e-01 1.229762749063075152e-02
-1.482095770931185053e+00 1.808062081375849395e-01 1.289186763633692022e-02
-1.518123445440813457e+00 2.048861595689192294e-01 1.395294221835459772e-02
-1.622841571691917117e+00 1.966639767368628111e-01 1.461159970056028282e-02
-1.697801606451614598e+00 2.062746776244049618e-01 1.505937194923018425e-02
-1.736305532716708955e+00 2.386213615282968825e-01 1.568852411186394402e-02
-1.806954761162678169e+00 2.569307788410335469e-01 1.709813316297914207e-02
-1.886227005674130375e+00 7.977636679912158968e-01 2.867569354715843871e-02
-2.045908374585823530e+00 8.574987629487356156e-01 3.241320168953115699e-02
-2.277842278875096493e+00 9.078263641454802357e-01 3.593891090483410794e-02
-2.458085681210321560e+00 9.411087684065647663e-01 3.898457282031946719e-02
-2.637392034909789018e+00 9.901490400022074923e-01 4.266818495668399380e-02
-2.901289030883755338e+00 9.465264318957351541e-01 4.987993662328689404e-02
-3.093386351060396500e+00 8.676956177169390383e-01 5.483704418138687919e-02
-3.338462615397605138e+00 8.953287841504699029e-01 5.898582217328639937e-02
-3.510483431749407135e+00 8.734407936477743828e-01 6.242953951118036110e-02
-3.627633161090009217e+00 9.001380653667986342e-01 6.406461457817712313e-02
-3.714350753038782926e+00 9.045890682619669443e-01 6.664257333491109547e-02
-3.833754781419421498e+00 8.672546394235531864e-01 6.923843487735234503e-02
-3.947692122409715232e+00 8.638083632191344563e-01 7.078365724908464163e-02
-4.008450929713101907e+00 8.720419955824173508e-01 7.235339208132547661e-02
-4.135186225126122217e+00 8.689945135795255071e-01 7.376906768352478605e-02
-4.234278527535922265e+00 8.629584846171587387e-01 7.434822467821455838e-02
-4.308780981197024573e+00 8.716080847082240401e-01 7.510770012738698931e-02
-4.369712653023050564e+00 8.676553148613246336e-01 7.531776412498036866e-02
-4.402972269913347780e+00 8.637561195561147542e-01 7.558126086802019472e-02
-4.444519237723711491e+00 8.701444855463673633e-01 7.621894481211591299e-02
-4.526556062110617340e+00 8.847861910013610220e-01 7.684733096887949588e-02
-4.579132575340908673e+00 8.816899490232796843e-01 7.773666441857805809e-02
-4.608321320216109740e+00 8.826249082116751632e-01 7.772349349533284879e-02
-4.695978209518700375e+00 9.049783110831985944e-01 7.779075033906923675e-02
-4.761261242524303938e+00 9.121349196525893044e-01 7.772837531126336463e-02
-4.756637468775366528e+00 9.291639821567718727e-01 7.884664160609332340e-02
-4.818205874413399314e+00 9.386538904964335517e-01 7.941558326092079678e-02
-4.884146305168031610e+00 9.507482473335533424e-01 7.927029882244047976e-02
-4.919072906403537893e+00 9.589569609166391784e-01 7.954897809155805910e-02
-4.977472746619750588e+00 9.571196842260655258e-01 7.936577238381972710e-02
-5.005598993105660810e+00 9.616858888532705540e-01 7.929918093008600510e-02
-5.050999622471959327e+00 9.698359501460551702e-01 8.006016125590606491e-02
-5.036979453174989629e+00 9.984957525720457028e-01 8.090219246111729490e-02
-5.100191950595217349e+00 1.006475287847420574e+00 8.141657881295744081e-02
-5.098733251395803023e+00 1.026805100850079810e+00 8.234841624974612029e-02
-5.140924439327662299e+00 1.032357576470397609e+00 8.245324886342457471e-02
-5.198419727670890111e+00 1.040271787234068768e+00 8.281361807332890401e-02
-5.238688050349469272e+00 1.037134381785731030e+00 8.251508772118154589e-02
-5.264533722815384564e+00 1.049462383650896724e+00 8.253049097249288979e-02
-5.324649397192203537e+00 1.054766100872162049e+00 8.233561094285157811e-02
-5.323410827769052389e+00 1.042725616452058190e+00 8.215502311533261215e-02
-5.352342658222644545e+00 1.048455823559689915e+00 8.235658627323537428e-02
-5.381936272752838590e+00 1.055977934092220849e+00 8.279859701069904043e-02
-5.364088977200660580e+00 1.082854128369565183e+00 8.368245253567099806e-02
-5.372386407428440869e+00 1.082037470734567908e+00 8.377569927034998754e-02
-5.404929350420595746e+00 1.088318265112123484e+00 8.418248894991417486e-02
-5.448480698676924305e+00 1.096489262568881129e+00 8.438976380502680175e-02
-5.482326036730174934e+00 1.094355573875175791e+00 8.426411177615268644e-02
-5.495927778791759977e+00 1.097383225477936985e+00 8.446586403908398766e-02
-5.533216390221403103e+00 1.104048238610322308e+00 8.515229846708710637e-02
-5.583546142375135801e+00 1.108727220634970312e+00 8.476515122874347941e-02
-5.566834557465495159e+00 1.129033864891249017e+00 8.539481780391657006e-02
-5.579533022151327515e+00 1.128887436391831312e+00 8.556476316705489971e-02
-5.597015110791877746e+00 1.128162725603055305e+00 8.574650524384293260e-02
-5.609349293014749271e+00 1.132071714199421208e+00 8.580905503095177800e-02
-5.643782254138256071e+00 1.136427941445561141e+00 8.589761127503847682e-02
-5.669757628563751872e+00 1.131629446343408008e+00 8.572372458026909781e-02
-5.700824963830458891e+00 1.132784670958996820e+00 8.621607487028816463e-02
-5.740636992267281080e+00 1.133952412901813922e+00 8.698891871839657675e-02
-5.794141978794748127e+00 1.130304768561497086e+00 8.706116308227918044e-02
-5.860728475332592780e+00 1.130659083484686356e+00 8.730494591208541599e-02
-5.887453011602822528e+00 1.131416218644397009e+00 8.784472550185973283e-02
-5.874341189675692299e+00 1.147711343806113948e+00 8.882209604751112320e-02
-5.887558729839615701e+00 1.149128552488670518e+00 8.941860595645231835e-02
-5.919630182006174302e+00 1.152406295679744730e+00 9.020462946326682219e-02
-5.940786834636748281e+00 1.158456982370089428e+00 9.013478810120072182e-02
-5.952410108820474832e+00 1.152462609936510729e+00 9.009990154471207713e-02
-5.965468778154977336e+00 1.157255926920952582e+00 8.990761601945532200e-02
-5.972246998164267850e+00 1.159971029484615501e+00 8.980140689050285230e-02
-6.001601689205068091e+00 1.165560942933391075e+00 9.028493505914994555e-02
-6.002379210504480866e+00 1.170563345034036473e+00 9.087673728919601346e-02
-6.013173856327621358e+00 1.168757376762011857e+00 9.029288786104253117e-02
-6.033602162217961862e+00 1.164864324816396346e+00 9.011723811073447943e-02
-5.999710923083231506e+00 1.146018454288909361e+00 8.986843356016750717e-02
-6.005615592201817066e+00 1.145273853543956166e+00 8.925236504957899386e-02
-6.033200609801111725e+00 1.148892875040779415e+00 8.890753468895894185e-02
-6.033641468645674522e+00 1.151052898961301141e+00 8.950082842810930250e-02
-6.038296454898203436e+00 1.147263244962098971e+00 8.922693939774375971e-02
-6.042698335696801593e+00 1.156542039465336735e+00 8.895067705444806294e-02
-6.039444696183755568e+00 1.157508204524992479e+00 8.960008302528078838e-02
-6.042793075807313841e+00 1.157784435460184946e+00 8.995771015463426001e-02
-6.054384756713154125e+00 1.158940659228366421e+00 8.959874678044102425e-02
-6.052612316391669189e+00 1.155985583030076036e+00 8.971912091668429734e-02
-6.052736790651433552e+00 1.156973170240559456e+00 9.031364999754000478e-02
-6.051189648887127071e+00 1.171135885816781075e+00 9.113061581033780889e-02
-6.051977516261144885e+00 1.170063335245885350e+00 9.148324939161009417e-02
-6.061328154948155245e+00 1.169741526445367885e+00 9.181871259541862784e-02
-6.054950397991635924e+00 1.173469453153687114e+00 9.188896018148672018e-02
-6.055764384806809453e+00 1.172123113828755558e+00 9.194684247374992903e-02
-6.059065827236131518e+00 1.170824637741436636e+00 9.196955838768473834e-02
-6.050167975268824883e+00 1.173426383737320444e+00 9.210766857501163918e-02
-6.049056929249577053e+00 1.170909402270416511e+00 9.199650861033152605e-02
-6.073506875462920007e+00 1.167848249482807077e+00 9.188192178298847101e-02
-6.074179039347619380e+00 1.173808804415830798e+00 9.269025687647919343e-02
-6.076916676829897668e+00 1.177630059521360240e+00 9.325899820036141763e-02
-6.030714717347253284e+00 1.194341222317182538e+00 9.401247246510711919e-02
-6.025483904711354199e+00 1.197706531997364099e+00 9.348310235213083685e-02
-6.051232116153345331e+00 1.202220861689312414e+00 9.399831916406507781e-02
-6.052693188322382234e+00 1.204169698962486601e+00 9.446986779692209679e-02
-6.018904291919917604e+00 1.218274262863832780e+00 9.501068418735071630e-02
-6.014950662627196465e+00 1.220958428849814759e+00 9.472941926528714862e-02
-6.030153706752583886e+00 1.220614093476357853e+00 9.424810891396145918e-02
-5.992509855619694292e+00 1.241257132224410142e+00 9.520120116668737142e-02
-5.995000595486914108e+00 1.245121283500279397e+00 9.565835919287603295e-02
-5.995617841888070565e+00 1.247948856149325270e+00 9.518436010685325799e-02
-6.018909210485682060e+00 1.243701380958126990e+00 9.468924379018946180e-02
-5.991286130529923426e+00 1.266874781805281458e+00 9.557564952874897379e-02
-6.002524133542586071e+00 1.268153237863378857e+00 9.640421382433969621e-02
-6.016121900557454438e+00 1.265763095912916025e+00 9.568973041433430360e-02
-6.028896367631271680e+00 1.264946894959199764e+00 9.529167759105061641e-02
-6.039133996998713449e+00 1.265056476666232887e+00 9.496319965330755897e-02
-6.060461589556568995e+00 1.261462108986811437e+00 9.497015194603752875e-02
-6.045573985079126800e+00 1.271071698640752201e+00 9.551208023647247969e-02
-6.043693443312824876e+00 1.278681156107235095e+00 9.610144166965070567e-02
-6.038885116682653376e+00 1.276653345031874665e+00 9.654488687827747495e-02
-6.000940991660070445e+00 1.294296289833422486e+00 9.721108318993774977e-02
-5.974595001550389028e+00 1.293588588524252625e+00 9.717759420836073747e-02
-5.963968012136978913e+00 1.295009276044207569e+00 9.701318430811324556e-02
-5.906546501112685199e+00 1.311343925107121500e+00 9.744040271593135127e-02
-5.863297057098573184e+00 1.315212794176582323e+00 9.778567272412641564e-02
-5.839754767227129051e+00 1.323014853235353616e+00 9.842016792640281841e-02
-5.787139751135901733e+00 1.346466638623096790e+00 9.876715165640441441e-02
-5.745635716382341052e+00 1.357798041572325198e+00 9.936087778030106010e-02
-5.702304750498229602e+00 1.366203681347211596e+00 9.974641441164151801e-02
-5.643180584884422757e+00 1.363478111413186422e+00 1.002305790476715197e-01
-5.549559971431268224e+00 1.374696217147415744e+00 1.013858848705234267e-01
-5.436917087563652551e+00 1.385215954543560501e+00 1.027831190880262313e-01
-5.298218506994055943e+00 1.378267509129186497e+00 1.045770522121260565e-01
-5.147772646026890442e+00 1.389950586367073582e+00 1.062223025708955992e-01
-4.972892203195129923e+00 1.385137815460296462e+00 1.082279587121273839e-01
-4.790582208279364984e+00 1.390305286369451387e+00 1.109032840280496507e-01
-4.538022269532053343e+00 1.407147977016226736e+00 1.143417695646672810e-01
-4.305094289987091649e+00 1.408647025272651510e+00 1.172897292175364009e-01
-3.988708529265039271e+00 1.445745722525210386e+00 1.191688055796084056e-01
-3.682202753394830275e+00 1.457367430238210249e+00 1.221856296285206978e-01
-3.358544188485884430e+00 1.459605771657443540e+00 1.255523061440534660e-01
-3.004111005271844270e+00 1.471741831430093628e+00 1.286462373954857519e-01
-2.598037958614564324e+00 1.469313393014426650e+00 1.321608562995498781e-01
-2.202115529186645659e+00 1.479099708816365766e+00 1.352173072500966744e-01
-1.786108645570284370e+00 1.482751144053381598e+00 1.371770041400340590e-01
-1.347240149872405146e+00 1.488163691817417256e+00 1.383951037290010733e-01
-8.749476447310964300e-01 1.488670345471525325e+00 1.387216395545839420e-01
-4.265892657861700688e-01 1.483953803857716247e+00 1.388787819772819843e-01
8.304924976388755598e-02 1.501951988108096270e+00 1.377776112369164252e-01
5.576678633913104699e-01 1.436725832647088197e+00 1.359208215623112781e-01
1.096254087998295823e+00 1.432046660862043463e+00 1.327305506741665309e-01
1.624303391212232883e+00 1.458164897789814063e+00 1.268876564344215974e-01
2.133159682470629370e+00 1.459220878359444251e+00 1.199765674013707623e-01
2.617130002399404631e+00 1.462828652328335810e+00 1.100466727153342900e-01
3.017583737516563946e+00 1.475588544851500039e+00 9.680609594993272449e-02
3.523063270403109737e+00 1.487406002114359804e+00 8.172079344398593126e-02
4.206360979926032861e+00 1.727372177401362396e+00 6.475879437381999726e-02
4.722968452611164381e+00 1.826774793555790533e+00 4.329710552867249707e-02
5.278438955052664028e+00 1.961137384664062733e+00 1.985292115089976051e-02
5.850664565152922769e+00 2.095429920850888639e+00 5.495011662177122329e-03
6.487777023743569238e+00 2.230853339776257105e+00 3.434124234201801906e-02
7.071289760722934581e+00 2.446167046668162648e+00 6.539907504000659622e-02
7.615956030312304392e+00 2.748340091868260338e+00 9.960567600951607259e-02
8.152321588238665484e+00 3.074124062677940916e+00 1.339337194052543645e-01
8.727865373639888347e+00 3.418245019832910625e+00 1.692964991128380892e-01
9.286013447785322228e+00 3.751737076040688290e+00 2.052528226026144598e-01
9.837167959786759397e+00 4.150420716211263183e+00 2.429617386115014988e-01
1.031360277480886189e+01 4.583678078892703844e+00 2.823229011745437278e-01
1.076884143693957085e+01 5.043590095611724777e+00 3.223005872192664101e-01
1.125642038125937638e+01 5.516496436784105839e+00 3.628891163844495948e-01
1.177462403647539091e+01 6.026891826791833218e+00 4.049623821179516581e-01
1.225161776161285410e+01 6.481497785248296672e+00 4.467825187489837258e-01
1.272734231312105280e+01 7.006387026026632547e+00 4.885206726090889906e-01
1.311448816365864367e+01 7.561295129478428301e+00 5.309051289044698363e-01
1.348699327253552127e+01 8.162251104696254700e+00 5.737958590897529465e-01
1.382791365591533683e+01 8.760807473218584107e+00 6.164540642052827035e-01
1.413767104888472126e+01 9.364893998096546213e+00 6.593078519936655946e-01
1.438215427075466479e+01 9.993605901751221765e+00 7.026562185471594280e-01
1.462394309434069761e+01 1.064411803958863167e+01 7.450293168542464484e-01
1.483417570657730877e+01 1.130934042828561203e+01 7.887978178334822399e-01
1.510250709089665300e+01 1.195085698788044937e+01 8.308860545847047696e-01
1.535839843123608262e+01 1.257522984184225123e+01 8.729604967210534694e-01
1.571375269759500526e+01 1.323614336092200361e+01 9.149821972026207506e-01
1.595193315199174222e+01 1.386625771370875526e+01 9.545540675883626980e-01
1.619421009965934743e+01 1.454756227676976721e+01 9.949427685605143346e-01
1.645928042789933698e+01 1.518105710487079918e+01 1.032851530021031916e+00
1.672681268809450117e+01 1.579375328152396740e+01 1.067877482537278766e+00
1.701081051505805775e+01 1.638297842941791060e+01 1.102862692192642102e+00
1.734179391068984089e+01 1.697721500038066011e+01 1.135588317775262146e+00
1.768919402155972875e+01 1.756593273508308073e+01 1.167905818288855535e+00
1.800789437107916413e+01 1.810817090922373396e+01 1.197301919512355983e+00
1.839777690237360019e+01 1.864597466347999344e+01 1.223042482480885429e+00
1.885765188990960439e+01 1.903319988956015862e+01 1.244589378065679375e+00
1.940997325951341423e+01 1.941166067075674917e+01 1.260372635579414036e+00
2.010712276070729487e+01 1.970892999638788723e+01 1.274001992960044127e+00
2.077610607663552145e+01 2.002813935492572739e+01 1.286169676541987217e+00
2.150771219403281265e+01 2.024482257367400351e+01 1.294054529448002144e+00
2.225167435893155954e+01 2.046433147770201444e+01 1.299775655640690974e+00
2.310996181674732952e+01 2.045461262424705851e+01 1.302122656314296245e+00
2.415280545086918806e+01 2.042897909228816644e+01 1.300151565566643574e+00
2.508786046963871996e+01 2.043074465249185323e+01 1.299478634634021912e+00
2.592419426099489499e+01 2.050076069547435154e+01 1.299162994641151814e+00
2.688058798670948235e+01 2.048187231524606489e+01 1.298172743484315550e+00
2.785263155274169833e+01 2.041038045519266575e+01 1.297431363419685679e+00
2.885944353856903888e+01 2.033679062593627407e+01 1.296704608175276441e+00
2.988680524259622828e+01 2.028874850270249652e+01 1.294534992011544761e+00
3.102173358097843447e+01 2.017248107414435054e+01 1.291306831046372228e+00
3.198964759887649478e+01 2.016137596257252440e+01 1.289629722842327020e+00
